# .PCD v0.7 - Point Cloud Data file format
VERSION 0.7
FIELDS x y z intensity
SIZE 4 4 4 4
TYPE F F F F
COUNT 1 1 1 1
WIDTH 1461
HEIGHT 1
VIEWPOINT 0 0 0 1 0 0 0
POINTS 1461
DATA ascii
46.02993 14.291502 5.7272663 23
46.078953 13.940092 5.7286973 22
45.624607 12.182851 5.7295566 11
45.898335 10.9916 5.729702 12
46.113811 15.609532 5.7308564 22
45.210068 18.157131 5.7311392 13
45.273106 17.991312 5.7311392 13
45.817478 14.41197 5.7321315 24
46.047729 9.7757397 5.7326164 10
45.961361 12.445283 5.734735 26
45.509369 16.740854 5.7369347 11
46.06897 9.9551306 5.7392087 11
45.981548 10.313657 5.7396436 12
46.041473 11.360721 5.7397738 10
45.633057 16.962843 5.7400079 11
46.036018 14.110405 5.7452745 18
45.882202 11.181347 5.7453885 11
45.908558 10.993854 5.7458205 11
45.492073 18.456303 5.7462153 13
46.023487 9.9545107 5.7486997 27
45.751255 14.583629 5.7492323 10
45.627808 16.782145 5.750268 10
45.917667 10.836311 5.7547407 11
45.482605 16.544796 5.7562709 13
46.007866 15.761743 5.7577305 11
45.888401 10.469945 5.7577457 11
45.969158 11.184026 5.7593856 11
46.078709 14.288268 5.7594819 11
45.857567 11.537953 5.7602391 11
46.003063 17.2831 5.761322 25
45.56086 18.473745 5.761322 25
45.798271 12.58289 5.7630849 10
46.079185 14.866142 5.7632799 10
46.026325 10.147176 5.763937 11
45.703274 11.317264 5.7659283 12
45.571095 10.569748 5.7660456 14
46.219933 12.871329 5.7661834 19
45.922501 15.002605 5.7663321 24
45.59713 18.698433 5.7667155 29
45.865959 11.70035 5.7671843 13
45.845665 18.777138 5.7682276 10
46.158802 10.148717 5.7684565 11
46.122879 10.149876 5.7694459 12
46.366314 10.358909 5.7697902 24
45.765003 17.027323 5.7698154 28
45.844261 9.9357796 5.770195 13
45.958435 11.917128 5.7714758 12
46.072517 12.293864 5.7741408 26
45.791458 15.895049 5.7791309 11
45.677677 18.904762 5.7797737 16
45.908165 12.083183 5.7800045 27
46.331539 11.443795 5.7808995 24
46.154232 15.453947 5.7818251 22
46.218334 11.579335 5.7831192 10
45.810482 17.214411 5.783916 25
46.446644 11.657839 5.7847819 26
46.004387 17.473886 5.7851486 10
46.09605 13.011077 5.7851954 27
45.784962 15.144195 5.7855697 15
46.157505 12.674724 5.7858849 26
46.260227 14.525225 5.7864528 20
46.147125 12.492047 5.7874012 24
46.481949 13.312412 5.7895837 24
46.314571 13.085898 5.7955728 25
46.571899 10.57893 5.7961178 24
46.162811 15.64295 5.7969737 10
46.079834 17.692242 5.7983747 25
46.069267 17.70661 5.7985072 13
46.172714 10.336102 5.7999468 27
46.164482 16.187149 5.8008938 22
46.389843 16.459873 5.801425 22
46.095036 12.838912 5.8030596 12
46.344013 11.813181 5.8031955 10
46.550907 10.752719 5.8040123 25
46.378613 13.467097 5.8079925 11
45.968472 14.648714 5.8098736 11
45.721664 17.389917 5.8100457 12
46.477818 14.969462 5.8112397 24
46.189636 15.838371 5.8116374 14
46.388954 17.997986 5.8137875 21
46.365509 17.989332 5.8144379 25
46.188374 13.251137 5.8144422 26
46.456417 10.571789 5.8158345 27
46.405617 16.0965 5.821125 27
46.380768 13.650392 5.8234415 28
46.989262 9.5754623 5.8235888 10
46.932167 9.5818357 5.8250575 10
47.070091 9.9563122 5.827951 25
46.253632 13.433165 5.8282161 11
46.421494 15.138381 5.8283238 19
46.401516 18.223816 5.8287396 28
46.759544 10.976229 5.8306036 20
47.055485 9.4094639 5.8310013 12
46.865662 15.463055 5.8318453 9
46.424171 10.75123 5.8322668 12
47.003319 9.4169512 5.8323278 20
46.565121 13.884976 5.833952 27
46.377388 12.000665 5.8344498 11
46.164082 18.116678 5.8354096 12
47.022079 10.305082 5.8357906 11
46.290665 16.615601 5.8367524 12
47.018234 9.7761869 5.8385577 11
46.767151 16.969091 5.8394241 24
46.527584 16.524223 5.8402834 11
46.347462 13.641218 5.8411508 28
46.913288 9.7393579 5.8414564 11
46.907337 13.980589 5.84166 21
46.919067 12.503677 5.8426504 11
46.927441 10.644467 5.8448153 22
47.089733 11.409432 5.8448606 21
46.74345 11.169321 5.8466477 25
46.782017 10.801758 5.8476949 10
46.991341 11.206717 5.8485007 10
46.914345 11.5509 5.8485007 11
46.404709 12.187248 5.8492656 13
46.796616 10.081578 5.8510976 11
47.03138 15.721988 5.8515987 25
46.428513 18.409615 5.8524165 28
46.7118 14.304693 5.8527255 23
46.736843 14.144255 5.8532386 19
46.060783 16.170603 5.8545213 12
46.324203 18.388699 5.8550553 22
46.845612 10.448427 5.8563018 23
46.407841 10.925689 5.856595 13
46.968651 12.698857 5.8570867 27
46.914795 14.177084 5.857132 25
46.771366 11.184028 5.8625803 11
47.056019 11.40189 5.8626022 24
46.625835 18.679676 5.8628016 11
46.794598 10.983802 5.8630972 23
46.508389 16.707747 5.8649817 29
46.78508 14.697853 5.8651366 18
46.917229 9.9353142 5.8654218 10
46.513767 18.636881 5.8657756 10
46.510212 17.071569 5.8705616 25
46.957417 14.375308 5.8717666 10
46.860645 15.848165 5.8719339 11
46.561905 14.446558 5.8723488 18
47.206181 10.179273 5.8736935 12
46.986538 15.141644 5.8741798 23
46.734001 16.975931 5.8746967 12
46.955811 11.044364 5.8754768 28
46.849884 11.201334 5.8772602 12
46.856564 14.914816 5.8789215 16
46.762085 17.351704 5.8796329 13
46.96917 10.141074 5.8798084 11
47.062668 16.103046 5.8824625 22
47.015102 10.346369 5.886013 28
46.944412 10.69075 5.886013 26
47.11084 11.457332 5.8862162 12
47.051735 12.903326 5.8876562 10
46.818382 10.852179 5.8882904 24
46.988899 11.611004 5.8883524 11
46.997475 11.414636 5.8892322 27
46.85524 14.532058 5.8901849 20
46.504902 18.829075 5.8903899 10
46.48159 18.820074 5.8909965 10
46.759743 10.473396 5.8917065 11
47.169037 11.608858 5.8923979 25
47.701885 14.968726 5.8930583 17
46.973175 12.160933 5.8940196 12
46.999626 11.985242 5.8943939 25
47.778862 15.765607 5.8943944 9
46.956539 10.155613 5.896771 12
47.240993 10.366139 5.8971391 11
47.214832 10.369456 5.8977633 24
46.779106 17.183521 5.8979096 20
46.977535 15.327176 5.8987918 4
46.925056 17.611952 5.8998127 10
47.148045 13.112221 5.9010406 10
47.064583 11.818613 5.9022036 27
47.148754 12.560604 5.9043627 26
47.12529 12.362907 5.906085 12
47.221138 17.912903 5.9081845 24
46.721706 19.128618 5.9091339 10
46.700138 19.101404 5.9098458 12
47.132957 10.01111 5.9098859 13
47.341892 10.549848 5.9106374 24
47.169102 17.717558 5.9109139 24
47.010872 11.607391 5.9130979 12
47.381851 12.987717 5.9133134 25
46.757122 17.368305 5.9142466 25
47.38715 12.804211 5.9142838 22
47.016098 19.433062 5.9176402 29
47.096283 13.291997 5.9181652 13
46.944962 16.273411 5.9184303 12
47.147522 14.993031 5.9229732 19
47.185856 11.829452 5.9245934 12
47.234383 17.936319 5.9252405 20
47.16666 15.764693 5.9257479 25
47.347019 10.576725 5.9272618 25
47.352051 13.16517 5.9300261 27
47.598221 12.109201 5.9303846 24
47.238781 18.115208 5.932497 25
47.433952 10.749914 5.932807 11
47.259544 16.550365 5.9352961 12
47.684174 13.651937 5.9366188 22
46.594624 19.276096 5.9369073 13
47.128571 15.951907 5.9425454 10
47.263706 13.52159 5.9469852 11
47.519428 15.303447 5.9470038 12
47.23661 18.310873 5.9485645 12
47.498798 12.269685 5.9488697 13
47.432068 10.931043 5.9488888 11
47.227573 13.326612 5.9489875 12
47.344315 16.771336 5.9492211 11
47.115982 16.138466 5.9501371 13
47.608166 13.800929 5.9546633 24
47.217049 10.739155 5.9548225 12
48.100342 9.6076412 5.95646 23
47.454453 13.946134 5.9572167 11
46.857525 17.994604 5.9591951 12
47.364086 16.410887 5.9601097 10
47.366966 13.735442 5.9604659 11
47.801018 11.192482 5.964644 12
47.363758 16.980492 5.964726 11
48.08115 9.7689552 5.9647598 11
48.090816 15.862829 5.9656901 20
47.38142 10.954875 5.966866 12
47.738964 12.512506 5.9677653 11
47.685833 14.198095 5.9677682 10
47.605564 14.390898 5.9683399 12
47.123058 18.287651 5.9687295 28
47.856869 9.7447462 5.9699826 12
47.549137 16.664846 5.9717689 26
47.297909 18.549555 5.9718013 13
47.459648 13.947565 5.9742837 13
47.949429 10.117285 5.9747915 12
47.551857 10.092309 5.9754372 13
48.242287 12.039219 5.9762964 10
47.982971 11.415961 5.9765701 11
48.150158 10.522572 5.9770274 12
48.066681 9.9572935 5.9813709 12
47.840271 14.241243 5.9814491 10
47.734882 9.5240812 5.982163 13
48.105953 10.889812 5.9849176 11
47.541302 17.235502 5.9853792 25
48.141247 10.337389 5.986619 10
47.535263 11.169858 5.9877725 16
48.10273 11.821331 5.9891038 10
47.40237 14.521148 5.9892163 11
48.124893 11.632189 5.9895539 26
48.100525 11.441786 5.9910173 12
47.693203 15.912609 5.9913635 11
48.010063 12.774076 5.9948096 10
47.619438 16.88221 5.9950337 11
47.928432 14.464488 5.9955745 28
47.788231 17.516624 5.9958396 10
47.874664 11.444734 5.9959702 15
47.870193 11.207413 5.9972081 13
47.761192 11.402199 5.9986715 13
47.840584 10.643064 6.0004725 14
47.606773 14.75111 6.0006723 15
48.305252 10.203359 6.0007296 11
48.093754 11.071326 6.0015111 11
47.883743 9.9313831 6.0026112 12
48.02438 11.109181 6.0028515 12
47.600433 11.201367 6.0031743 13
48.183964 15.111159 6.0036931 15
47.737572 10.292665 6.0042996 14
47.716423 16.121609 6.0069652 11
47.879139 10.877473 6.0070958 12
48.088482 11.659304 6.0074325 12
48.091118 11.624639 6.0075431 11
47.72834 17.123053 6.0086751 19
47.835411 10.6942 6.008883 14
48.001801 11.657465 6.009316 12
47.826981 10.509924 6.0098882 13
48.136776 10.388878 6.0121975 12
47.947105 12.945173 6.0125155 12
48.083759 15.273382 6.0135441 8
47.734814 17.320734 6.0159721 12
48.339775 10.393938 6.0163636 11
48.237465 10.575098 6.0177927 13
47.049706 18.841536 6.0186553 12
47.779316 17.710129 6.0211644 11
48.140438 16.470345 6.0223355 10
48.229744 14.741103 6.0225191 10
48.145065 13.182825 6.024364 11
47.916557 11.831755 6.0274711 13
48.300541 11.857479 6.0278268 26
48.197605 12.082067 6.0289087 11
48.678074 15.063365 6.0290556 18
48.166782 10.211504 6.0294347 12
48.087196 12.224609 6.0305319 11
48.081383 11.851785 6.0324793 13
47.476318 17.426588 6.0380306 13
48.518391 12.138806 6.0392618 28
48.34774 15.748707 6.0404181 17
48.090317 13.356786 6.0419235 12
48.299221 12.479533 6.0421362 10
48.265903 10.563288 6.0430188 11
48.154499 15.882676 6.0434546 23
48.51609 13.666331 6.0490046 26
47.88448 12.556831 6.0503335 12
48.423847 13.083164 6.053926 25
48.593895 12.344201 6.0541353 12
48.436123 10.782273 6.0557685 13
48.060661 16.620792 6.0582814 13
48.229855 12.82855 6.0591617 28
48.295135 16.120934 6.0656791 20
48.697937 11.048529 6.0665879 13
48.391464 13.452979 6.0701227 11
48.402817 13.248717 6.0709462 29
48.109627 10.732988 6.0713081 15
48.73769 11.030204 6.0745502 12
48.301174 16.317743 6.0820527 13
48.43578 13.835208 6.0847416 25
48.089348 16.453793 6.0852637 13
48.444286 13.6474 6.0855513 28
48.65432 12.546887 6.0868673 11
48.850807 11.222919 6.0888915 13
49.105923 11.465165 6.0915861 13
48.821766 14.322755 6.0922961 26
48.701591 12.756173 6.0936933 14
48.334538 13.808119 6.0956001 26
48.668106 14.08871 6.0964742 13
48.658455 14.08609 6.096673 13
48.753918 11.24686 6.0994134 13
48.07748 17.017504 6.0996552 14
48.929771 13.002022 6.10567 27
48.833 11.450913 6.1057253 14
49.138443 9.7872505 6.1062226 11
49.279251 9.9905777 6.1114879 13
48.628048 14.461344 6.1129045 12
49.182674 9.9904699 6.1133614 11
48.63414 14.271074 6.1137843 11
49.186729 10.346871 6.1207232 12
49.147434 10.152619 6.122189 13
49.096748 11.651655 6.1260757 13
48.76823 14.702601 6.1266899 11
49.230343 10.542532 6.1279159 13
49.33638 12.093006 6.1285133 11
49.09037 12.226456 6.132545 11
49.229416 11.536766 6.132833 13
49.266273 11.1224 6.1337929 13
49.06308 11.689152 6.1353288 13
49.161987 13.251006 6.1354418 28
49.197498 10.911173 6.1359043 12
49.32135 10.203282 6.1361923 12
49.039593 11.325528 6.1372485 15
49.173 10.575846 6.1376324 15
49.356152 11.51913 6.1393414 13
49.273457 11.186713 6.1421947 13
49.520912 11.93516 6.1434417 27
49.204704 10.724934 6.1452384 13
49.458576 11.351662 6.1469288 11
49.320869 11.890483 6.1473055 26
49.079926 10.762335 6.1474261 14
49.242043 11.945085 6.148531 15
49.113419 12.105433 6.1502271 12
48.865311 10.914496 6.1508503 15
49.109322 11.897241 6.1511693 14
49.141518 11.706441 6.1513581 13
49.301888 10.386896 6.1534314 12
49.343891 12.330451 6.1538849 12
49.346428 11.70646 6.1564059 13
49.418396 10.830521 6.1584601 13
48.97559 12.434289 6.1601405 14
49.366428 10.63191 6.1689234 12
49.300594 12.902306 6.1699181 12
49.239471 12.687262 6.1719337 12
49.356621 12.142917 6.1721172 13
49.512432 10.615878 6.1751409 12
49.564133 10.482363 6.1834941 13
49.490616 12.364513 6.1865535 13
49.725266 10.829141 6.188261 11
49.537132 11.052523 6.1907778 15
49.680168 11.0277 6.1972013 12
49.689529 11.255684 6.2139416 14
35.086338 23.021391 4.4605169 23
34.942333 22.751818 4.4629512 10
35.319553 22.620731 4.4759479 22
34.99419 22.252314 4.4913082 24
34.955956 23.118679 4.4932518 10
35.169086 22.706261 4.5102124 23
35.12812 23.40954 4.5108342 11
35.247856 21.853601 4.5121508 21
35.600365 21.362658 4.5301938 21
35.292072 22.055475 4.5320702 10
35.777405 20.919514 4.5342526 9
35.553032 22.389723 4.5364852 10
35.289944 22.960876 4.5391335 10
35.507488 21.466249 4.5535583 10
35.395977 23.2082 4.5548439 11
35.813866 21.112762 4.5551653 22
35.594746 22.593601 4.5569749 24
35.631214 23.539633 4.5615621 20
35.995453 22.111807 4.5657802 22
35.996803 21.390564 4.5658751 10
35.919888 21.007578 4.5670691 23
35.606968 21.715393 4.5693579 10
36.024342 21.231699 4.5764546 24
35.755264 23.803043 4.5765138 23
35.823227 22.913597 4.5791035 25
36.116013 20.224007 4.5796552 24
36.074337 21.610287 4.58424 23
36.277214 20.506384 4.5843682 19
36.195309 21.520439 4.5878911 22
36.019741 23.225597 4.5889535 22
36.220104 21.879507 4.5904708 23
36.297619 20.501049 4.5906568 22
36.635612 19.80835 4.5921745 19
36.353271 20.70368 4.5963097 23
36.328823 20.7068 4.597517 23
35.820229 22.185799 4.6018386 10
36.040615 23.421923 4.611536 24
36.164165 21.678719 4.6140084 24
36.391197 20.897776 4.617763 10
36.383106 19.863297 4.6186399 21
36.118526 21.997881 4.6214762 24
36.083244 22.538862 4.6216798 10
36.229404 23.72521 4.6227398 23
36.433598 22.361732 4.6240997 22
36.568859 22.60527 4.6249237 22
36.483429 19.899456 4.6266656 22
36.218063 20.818991 4.6290975 22
36.269203 21.899523 4.6313791 24
36.548851 20.120573 4.6314836 21
36.608955 20.135902 4.6351242 22
36.412388 21.100277 4.6399808 10
36.170704 22.754879 4.640317 10
36.485287 21.124105 4.6428418 10
36.332573 23.976852 4.6476088 23
36.542236 21.331257 4.6486425 10
36.634335 19.30015 4.6493802 10
36.755653 20.385424 4.6496019 22
36.527691 20.280766 4.6498594 23
36.694599 19.146269 4.6502748 10
36.339897 22.118832 4.6507721 24
36.927338 19.431368 4.6519294 21
36.638424 22.49115 4.6546216 22
36.794693 19.550087 4.6557727 21
36.765778 20.580376 4.6582842 20
36.856632 20.612514 4.6600299 23
36.215309 22.963572 4.6615086 10
36.943802 20.842106 4.6639104 22
36.631519 21.583241 4.6663322 10
36.481998 21.297537 4.6673269 10
37.114773 18.665384 4.6691651 23
37.068836 19.852247 4.6696429 22
36.56921 21.531174 4.6709509 11
36.341549 24.170048 4.6714892 10
36.424702 23.274864 4.6718483 11
36.582413 22.97777 4.6729817 11
36.702465 22.719345 4.6746826 10
36.949627 19.612507 4.6749382 9
37.099754 21.102442 4.6783524 22
36.815685 21.848755 4.6791677 23
36.9384 22.098368 4.6809187 24
36.756325 21.831936 4.6825905 10
36.286606 22.635117 4.6825905 10
37.0182 21.074743 4.6832156 22
36.606846 23.572206 4.6843429 11
36.979809 19.994408 4.6850481 20
36.733528 23.270851 4.6871424 10
37.212589 18.880297 4.6874127 24
36.962955 18.775436 4.688807 24
37.350471 17.928093 4.689393 23
36.644257 19.651031 4.6898394 9
36.673717 22.867258 4.6942382 11
36.568398 20.655708 4.6954899 10
37.188683 21.328104 4.6973972 22
36.942116 23.593054 4.6981006 23
37.241199 20.286331 4.7005582 24
37.008682 22.319553 4.7011414 10
37.2654 19.082766 4.7012639 9
37.048168 20.202166 4.7052436 20
37.097279 23.876287 4.705471 25
36.651829 23.786499 4.7061186 10
37.107712 20.044125 4.706388 21
37.271717 21.552063 4.7095408 10
36.989616 18.964016 4.7113986 24
36.969978 21.207821 4.7115269 10
37.449631 20.569859 4.7121296 10
36.988041 23.240475 4.7136626 26
37.626827 18.396698 4.7140198 21
36.852169 24.109007 4.7177305 10
37.262215 19.25069 4.7189755 23
37.295761 19.453728 4.7193818 22
37.090752 22.549086 4.7207727 11
37.267048 18.244991 4.7220497 22
37.328938 18.099678 4.7223382 24
37.027039 22.330191 4.7224278 23
36.72039 21.990162 4.7243795 25
37.587833 19.755058 4.7262158 24
37.102242 20.403702 4.7265043 20
37.108353 22.55937 4.7271681 25
36.977905 19.126534 4.7295151 10
37.658344 18.579618 4.7297816 23
37.103039 24.068558 4.7302666 24
37.384922 18.467009 4.7321353 22
37.524185 20.784979 4.7324882 24
37.432957 19.505764 4.7330041 22
36.981159 21.407755 4.7351222 11
37.140686 22.752537 4.7353244 25
37.039379 23.457321 4.7354031 25
37.190994 23.737158 4.7356744 25
37.253765 21.721031 4.7357035 10
37.735416 17.455402 4.7378564 24
36.924065 24.343899 4.738173 31
37.78373 18.807953 4.7397385 23
37.997101 16.389067 4.740706 20
37.501896 20.966488 4.7437215 21
37.247272 24.34902 4.7464013 11
37.957962 16.551155 4.746439 20
37.551643 18.713863 4.7465682 23
37.059185 21.629141 4.7475924 11
37.307178 23.052811 4.7494645 25
37.482861 20.939453 4.7528014 10
37.19096 20.624813 4.7530775 24
37.361813 21.970278 4.7537675 25
38.12252 16.782921 4.7543359 22
37.193573 19.573286 4.7579908 24
37.475323 19.870872 4.7583642 24
37.279884 21.9326 4.7586818 10
37.684647 17.598148 4.7588716 23
37.9734 17.885189 4.7591143 22
37.573887 20.119081 4.7619705 24
37.401909 19.850071 4.762538 23
37.988918 16.727171 4.7625566 20
37.39415 24.633524 4.7626505 10
36.92746 24.536528 4.7631307 11
37.333214 23.059471 4.7632713 24
37.664833 18.920963 4.7649865 23
37.732162 22.545675 4.7662983 10
37.778896 17.964588 4.7672591 22
37.537296 22.251177 4.7680898 10
37.390419 21.091925 4.7681894 10
37.530502 19.050289 4.7686148 21
37.446602 18.832479 4.7708564 23
37.355515 23.26725 4.7717576 11
37.694901 20.355791 4.7722979 21
37.5695 21.171806 4.7724137 10
37.527634 20.078861 4.772646 10
37.244835 23.958776 4.7729068 11
37.625454 17.745098 4.7729812 24
37.013538 22.686342 4.7732592 12
37.611805 23.608681 4.7736831 25
37.425728 22.204948 4.7745585 25
37.998337 18.063854 4.7756147 18
37.887535 19.198709 4.7765045 22
37.898754 18.186415 4.7778406 22
37.648998 21.393377 4.7778559 10
37.248638 24.733154 4.7817788 12
37.782269 20.384235 4.7822108 10
37.733418 23.853373 4.7846575 26
37.910492 16.865631 4.7852335 19
38.010891 19.438793 4.7868018 9
38.110271 18.266956 4.7872539 22
37.423885 24.260038 4.7872744 10
38.179905 17.128614 4.7873006 21
38.119232 16.938007 4.7873149 23
37.622253 22.648783 4.7914686 10
37.80669 19.355415 4.7914691 10
37.766338 20.568434 4.7932682 22
37.662113 21.579922 4.794951 12
37.356934 21.25112 4.7954316 10
38.26955 18.509405 4.7958107 22
37.839985 20.590042 4.7966595 24
37.446468 23.312889 4.7968955 11
38.167782 15.986693 4.7977343 22
37.928276 23.029617 4.7980032 10
37.975895 20.838163 4.7989678 20
37.980358 21.936522 4.8011699 24
37.929764 17.053415 4.8017688 22
38.394753 16.216261 4.8028641 22
38.06411 18.608412 4.8037281 19
37.837543 24.107319 4.8041406 24
37.546299 24.528318 4.8054314 26
37.969822 18.395401 4.805985 24
37.576496 21.549938 4.8072562 10
37.970547 19.591763 4.8073287 25
38.445328 17.591505 4.80755 22
37.859497 21.886782 4.8080411 25
37.99826 19.795397 4.8085184 22
37.5312 22.447683 4.8085699 11
38.060574 20.882675 4.8088894 21
38.156151 17.465767 4.810226 21
37.789036 19.51869 4.8105197 24
38.249626 16.189249 4.8109074 22
37.937588 23.035055 4.8128161 23
37.750984 22.75848 4.8131804 25
37.566525 23.58131 4.8148956 10
38.014572 17.238798 4.8150916 20
38.46357 16.4231 4.8168201 20
38.198727 17.318069 4.8185835 24
37.98587 23.250389 4.8204064 25
38.074253 22.171427 4.8213181 25
38.072224 18.782312 4.8213892 23
38.15345 19.856054 4.8219366 21
38.351696 16.393456 4.8231392 22
38.036793 19.98888 4.8243389 24
38.4688 17.777639 4.8243637 21
37.747665 24.848885 4.8268967 10
37.918911 21.002897 4.827599 10
38.133434 18.640711 4.8290024 10
37.97065 24.399454 4.8294349 22
38.325642 20.117277 4.8299775 9
37.913017 22.08124 4.8309679 24
37.701862 23.852203 4.8324618 11
38.462021 16.602392 4.8350053 21
38.590218 18.00001 4.8356538 18
38.26696 22.46373 4.8358207 23
38.036911 21.048519 4.8360205 10
38.31036 18.877993 4.8371501 21
38.482929 16.775822 4.837646 19
37.833572 24.497681 4.8405194 11
37.810211 23.342916 4.8411813 11
38.481739 16.59478 4.841444 20
37.984627 24.215891 4.8415313 25
38.028366 17.59996 4.8428001 9
38.461613 20.548332 4.8434868 24
38.013161 20.160177 4.8437209 23
38.581989 20.609905 4.8440084 22
38.314667 17.893742 4.8441353 23
38.093456 18.963104 4.8456912 10
38.595348 16.806501 4.8459821 23
38.166275 21.296715 4.8466077 11
38.689236 18.197742 4.8487444 21
38.412094 19.097975 4.8495355 10
38.338638 19.252024 4.8495355 22
38.376522 20.319262 4.8528757 25
38.020226 23.656683 4.8546853 25
37.868282 21.154274 4.856266 10
38.61396 16.972166 4.8562727 23
37.901184 23.200502 4.8562794 10
38.215187 22.62838 4.8570433 11
38.68224 19.416725 4.859396 22
37.85939 22.251219 4.8594942 11
38.368443 18.07019 4.8597021 21
38.061211 24.852703 4.8605494 11
38.831867 17.230324 4.8622675 21
38.763042 18.401623 4.8630633 24
37.961449 23.42382 4.863286 24
38.301113 24.016193 4.8644238 10
38.336121 16.872051 4.8648214 10
38.646366 17.168079 4.8652892 24
38.372211 19.449646 4.865778 24
38.014767 24.426786 4.8659205 25
38.164539 22.617193 4.8672562 24
38.247131 21.529272 4.8675957 10
38.595161 19.540941 4.8681827 23
38.321262 20.671021 4.8697219 23
38.325333 21.753298 4.8738542 11
38.515224 20.75419 4.8740067 10
38.553707 23.19684 4.874403 25
38.435116 18.253351 4.8746052 10
38.353085 22.893387 4.8751817 10
38.608429 22.091389 4.8760343 22
38.315086 22.88936 4.8769403 24
38.716084 17.364855 4.8798733 10
38.752655 18.560112 4.8824792 23
38.691158 21.024925 4.8824863 24
38.33466 23.835997 4.8832645 24
38.472759 22.016836 4.8838491 23
38.626251 19.730974 4.8849692 25
38.430889 19.65222 4.8883119 24
38.340664 24.213993 4.8890233 25
39.07177 16.328835 4.8906312 22
38.844501 17.588013 4.8912148 22
38.39595 20.888226 4.8914289 24
38.633751 17.329788 4.8919439 11
38.005745 24.614403 4.8927131 12
38.936592 17.627636 4.8933964 10
38.804279 19.994316 4.8934665 9
38.658409 23.447052 4.894927 26
38.375183 18.412134 4.8961697 23
38.639473 24.608994 4.8980494 24
38.716335 18.904051 4.8991222 19
38.375202 24.051817 4.8995538 11
38.550945 19.886221 4.8999734 10
38.968857 16.453543 4.9005818 10
38.857552 20.2148 4.9012308 20
38.985821 17.842701 4.9014792 23
38.838894 16.252405 4.9034963 24
38.274761 24.977901 4.9036269 25
38.832382 18.785192 4.9037552 10
39.088551 20.31275 4.903821 20
38.555088 18.657299 4.9045777 23
39.151215 16.510595 4.9053535 20
38.746601 21.234676 4.9056821 24
39.025486 17.827568 4.9073563 10
38.420589 21.08049 4.9085541 11
39.079865 19.073336 4.9086318 19
38.711502 22.333136 4.9120474 23
38.527397 24.735079 4.9153233 11
38.36488 23.087513 4.9163284 11
39.018169 16.655209 4.916338 10
38.705837 23.665382 4.9189048 11
38.827618 19.129337 4.9190388 24
38.759666 22.545925 4.9203887 25
38.809505 21.4496 4.9209204 10
38.74659 22.538614 4.921124 10
38.440773 24.293327 4.9221535 10
39.035919 20.465359 4.9256845 24
38.577007 21.343596 4.9259329 11
39.107716 16.675543 4.9263983 21
38.453808 22.190292 4.9266124 11
38.875526 17.948257 4.9268093 23
38.859169 20.393639 4.9275417 19
39.091103 18.042933 4.9296999 24
38.969002 19.370508 4.9299479 24
38.97052 21.744545 4.9301939 23
38.582096 23.402494 4.9305449 25
39.118061 18.24242 4.9318395 21
39.074844 16.837063 4.9322214 22
39.230961 18.259769 4.9337635 21
38.704929 24.6492 4.9340506 26
38.807121 22.759541 4.9366078 11
38.893776 19.143867 4.9382386 12
39.288403 17.108635 4.9390922 22
38.955353 21.710182 4.9393749 10
38.816593 23.922607 4.9395075 11
39.18404 19.455812 4.9410982 23
39.229046 20.751211 4.9414692 23
38.512993 24.921898 4.9429274 11
38.821552 22.785542 4.9431753 23
39.346237 17.100382 4.9439821 23
38.66378 23.640619 4.9448223 23
39.243919 17.242823 4.9460053 21
39.34341 22.299007 4.9481812 10
39.125088 18.401087 4.9507451 22
38.767128 20.534182 4.9512987 25
39.249195 19.865707 4.9522433 24
39.370369 21.004498 4.9528556 25
38.880703 19.511856 4.9535284 10
38.959446 23.061043 4.9543266 10
38.932461 23.027683 4.9562387 25
39.062786 24.448479 4.9563756 26
38.888779 16.753136 4.9573984 12
38.811279 21.842674 4.9579482 10
39.171974 19.634659 4.9606071 11
39.498791 17.349123 4.9619699 24
38.878838 24.152721 4.963016 11
39.311756 18.840139 4.9633951 23
39.309994 18.467445 4.963531 23
39.016235 20.840616 4.9641218 24
39.080688 21.054686 4.9642534 25
38.783207 23.902784 4.9650359 11
39.207207 18.610695 4.9652653 22
38.964283 23.235231 4.9657059 11
38.614563 24.789061 4.9659972 12
38.933514 21.891159 4.9670868 11
39.578156 20.187107 4.9692717 22
39.373348 18.669298 4.9716768 21
39.879181 16.640135 4.9726973 20
39.359066 17.476641 4.9734168 23
38.994202 22.126501 4.9746432 11
39.401039 19.922207 4.9749236 20
39.458439 17.486116 4.9761653 10
39.274685 22.448591 4.9789839 11
39.328781 17.625814 4.9793859 10
39.135265 24.68833 4.9796748 11
39.21656 20.02762 4.9807434 23
38.978352 24.212303 4.9813857 27
39.388908 18.842167 4.9826069 25
39.316467 19.000139 4.9826069 24
38.887825 23.209404 4.9851561 11
39.271015 21.135603 4.9851604 10
39.135853 22.390118 4.9860759 25
39.17165 21.283854 4.9861164 26
39.542027 17.904488 4.9868164 9
39.716923 19.184752 4.9916449 21
39.660767 20.407717 4.99192 23
39.459049 19.241531 4.9941602 24
39.672508 17.944265 4.9952741 10
39.418976 21.39522 4.9964781 23
39.263565 20.229128 4.9973583 24
39.025547 23.442751 4.9976902 24
39.910614 16.821949 4.9979944 21
39.371273 23.854069 4.998034 26
39.516857 17.697771 4.9994597 25
39.108768 23.509098 5.0006852 11
39.637497 18.10165 5.0013566 22
39.701588 16.73843 5.0015235 23
39.522614 21.651241 5.0021348 18
39.340805 22.672989 5.0025816 12
39.324463 22.681877 5.003047 10
39.512177 21.628155 5.0030732 26
39.237522 16.402313 5.0066366 12
39.421387 20.486845 5.0081782 10
38.983608 24.409979 5.0082846 11
39.5886 23.00032 5.0088582 11
39.770714 16.943411 5.0096331 24
39.67115 24.224443 5.0096736 22
39.078777 24.85066 5.0100636 12
39.683815 20.600121 5.0101223 23
39.691292 19.34963 5.0124006 11
39.799736 17.125074 5.0125117 22
39.904491 18.217686 5.0176668 22
39.976105 17.197086 5.0183692 25
39.49931 19.453545 5.0185924 25
39.547142 21.831812 5.0206413 11
39.853302 20.866858 5.0207491 25
39.380657 21.761198 5.0212145 11
39.489647 22.963112 5.0215917 27
39.605602 18.277134 5.0220675 10
39.791645 19.760952 5.022841 23
39.645061 16.908745 5.0234246 10
39.165489 23.752296 5.0244608 12
39.179916 24.724869 5.0251641 11
39.529411 24.14102 5.0251641 11
40.212494 17.465816 5.0257368 22
39.556862 20.744083 5.0279298 24
39.759903 19.559168 5.0282583 25
39.65807 18.283676 5.0347867 10
39.608124 23.193031 5.0355306 11
40.008202 17.397877 5.0359774 22
39.436192 21.967358 5.0378761 12
39.658249 18.457397 5.0390239 10
39.48703 24.292727 5.0393815 11
39.925579 19.807446 5.039382 23
39.907063 18.551044 5.0416837 25
39.461575 23.137686 5.042562 11
39.763676 19.926561 5.0438075 25
39.929028 21.097113 5.044076 25
39.57383 20.934584 5.0464845 25
39.595833 24.39463 5.0489554 11
40.131641 18.835157 5.0496306 24
39.805401 24.698042 5.0502439 24
40.004799 20.222689 5.0510035 22
39.685162 22.287952 5.0523148 24
39.760067 18.685528 5.0530562 10
39.821747 22.361649 5.0531807 11
39.883511 17.517754 5.0543966 10
40.120491 19.00696 5.0545197 23
40.018723 17.557775 5.0553446 11
39.732601 23.482965 5.0561037 23
39.898132 24.96209 5.0570216 11
39.69313 23.451336 5.0583372 10
40.329494 17.852812 5.059413 22
40.011265 21.32337 5.0595727 25
39.595299 22.043571 5.0611606 11
40.282139 17.849432 5.0615096 21
39.865894 19.958429 5.062058 10
40.248581 19.064848 5.0634398 23
40.021183 20.213379 5.0660582 25
39.696972 21.180225 5.067441 11
40.042301 22.670521 5.069644 24
39.690289 24.62915 5.0723491 11
39.938194 22.631927 5.0745382 10
40.404457 18.075632 5.0751853 10
40.07616 17.952398 5.0760999 10
40.081997 19.166769 5.0761962 23
39.846004 23.750467 5.0779061 25
39.831837 21.433744 5.0802093 25
39.775993 23.691818 5.0818634 10
40.110439 21.559814 5.0822334 11
39.999695 24.0154 5.0823855 11
39.903473 20.354469 5.0836153 9
40.311607 16.827354 5.0858459 23
40.70472 17.139248 5.0865207 23
40.310772 20.535877 5.0869117 22
40.55566 16.891197 5.0894642 24
40.230499 24.346144 5.0908513 21
40.096268 19.173283 5.0908928 11
40.169178 22.930811 5.0911808 26
40.167103 18.148762 5.091568 24
40.440735 20.783077 5.092557 21
40.092621 20.629097 5.0938621 10
40.556297 17.079943 5.0938625 20
40.216965 21.801706 5.0968142 10
40.335777 19.444447 5.0991154 21
40.091347 21.923429 5.0992422 27
40.714432 18.561243 5.0997906 21
39.934669 21.672533 5.1026397 11
40.55991 18.300913 5.1031141 24
40.153484 19.56476 5.1042919 26
40.459358 22.116638 5.1048493 26
40.263302 18.381983 5.1062965 9
39.846275 22.77162 5.1069465 11
39.987633 24.008423 5.1072278 11
40.19183 20.870132 5.1086226 11
40.535637 19.71682 5.109241 24
40.031872 23.046766 5.1100006 11
40.140938 24.312679 5.1111708 11
40.374981 19.848209 5.113245 10
39.754448 24.865879 5.113308 12
40.496521 17.244879 5.1165032 23
40.330116 20.930151 5.1176972 11
40.711758 21.297489 5.1193414 22
39.562 19.104959 5.1219468 15
40.51442 23.508465 5.1224766 27
40.318726 23.41761 5.1235676 27
40.119568 24.478947 5.1246405 12
40.891888 17.56267 5.1253352 25
40.033474 23.065916 5.1255441 26
40.62793 17.2815 5.1256738 11
40.248627 18.542912 5.1270432 24
40.33379 21.125515 5.1294942 11
40.640667 17.4767 5.1295094 22
40.927593 20.273846 5.1304202 22
40.797295 18.775269 5.1314659 23
40.55899 18.856739 5.1318889 25
40.55365 23.725807 5.1327648 26
40.459404 19.870642 5.1328664 10
40.453083 22.302847 5.1333179 25
40.847305 18.984564 5.1335258 10
40.346722 20.015776 5.134625 11
40.741264 20.3862 5.1356335 20
40.459305 24.878881 5.1364956 28
40.114285 22.141321 5.1414895 26
40.930168 22.950497 5.1427813 23
40.912846 17.738058 5.1447086 23
41.011391 19.220282 5.1462774 23
40.432785 22.49131 5.1463175 11
40.653313 19.077139 5.1474557 11
40.651436 17.663525 5.1489511 11
40.328335 22.453573 5.1510005 26
40.634007 19.230497 5.1532669 23
40.562084 21.408833 5.1547732 10
40.710873 20.555405 5.1573544 22
41.03019 17.979429 5.1591554 10
40.309757 24.809183 5.1597404 26
41.110245 18.189936 5.1601801 11
40.293888 23.597975 5.1611571 25
40.086426 21.185619 5.1615291 13
40.843349 21.73963 5.1616883 25
40.021713 24.421375 5.1619334 12
40.523254 23.914125 5.1625628 25
40.83942 20.415686 5.1628952 25
40.542202 21.603638 5.167675 26
40.678158 17.849348 5.1678195 10
41.01342 20.701662 5.174778 24
40.971756 21.99494 5.1761117 25
40.773182 21.910597 5.1770701 22
40.771812 19.292747 5.1779571 11
40.346878 22.654087 5.1783261 11
40.670284 19.443817 5.1792445 11
41.116386 18.370232 5.1803179 23
40.740467 23.041323 5.1804166 11
41.107197 18.366322 5.180747 11
40.935684 22.184769 5.1818728 21
40.765385 20.766415 5.183012 9
40.504417 24.100273 5.1838951 11
40.694843 18.031706 5.1872211 11
40.683411 24.401463 5.1877937 27
41.348343 17.212584 5.1899753 22
40.280979 23.785686 5.1901584 10
40.9478 19.535986 5.1903586 25
41.342041 18.645491 5.1903586 21
41.114498 20.918999 5.1909156 23
40.922596 23.335197 5.1924529 26
40.43877 22.895473 5.1942697 12
40.778534 19.665531 5.1945987 26
40.596546 24.171932 5.195518 11
40.895737 21.024803 5.1971712 26
41.041641 23.596668 5.1994367 11
41.033939 24.805286 5.2004251 27
41.059246 22.230877 5.200707 27
41.569382 18.915384 5.2007298 22
41.098797 18.540934 5.2015944 25
41.045464 19.971226 5.2026143 26
41.226814 17.181206 5.2030778 23
41.304501 18.834709 5.2043843 26
41.045887 19.780045 5.2059641 10
40.792442 23.282295 5.2062917 11
41.352924 17.406618 5.2100739 25
41.140263 21.118519 5.2103357 23
41.4006 17.610334 5.21278 21
40.992481 21.259527 5.2132182 11
41.333897 20.087868 5.2134986 25
41.270546 17.356979 5.2141018 11
41.304417 21.396666 5.2153172 11
41.167366 22.479185 5.2164388 26
40.960503 22.388865 5.2174716 11
41.639347 19.144728 5.2180476 22
41.129829 20.19417 5.2192879 26
41.234035 23.901039 5.2196565 12
40.624454 24.386295 5.223001 11
40.868221 23.519302 5.2234373 11
40.879143 24.715014 5.2241364 12
41.265697 22.733286 5.2244406 11
41.485794 17.627928 5.2248082 11
41.512833 20.356386 5.2261367 23
41.047192 23.8155 5.2278118 10
41.457558 21.662558 5.2291884 27
41.134472 22.682165 5.2300591 22
41.184418 18.962269 5.2304592 24
41.789566 19.376139 5.2324653 23
41.543438 19.301868 5.2349448 12
41.195049 20.409422 5.2369566 11
41.685833 20.624327 5.239265 24
41.030289 21.466244 5.2401199 12
41.58691 17.846304 5.2409983 10
41.224281 17.715107 5.2413745 11
41.072464 22.842514 5.2455153 12
41.263977 24.126057 5.2473512 12
41.380909 20.683651 5.2493415 24
41.514614 19.454081 5.2493858 23
41.336269 22.965057 5.2503381 11
41.249565 21.765902 5.2509713 11
41.582851 21.91646 5.2526546 24
41.382843 23.185324 5.2528257 11
41.763409 19.547928 5.2545815 10
40.990997 24.982012 5.2565246 28
41.691586 18.067545 5.2571673 24
41.422573 24.415861 5.2613535 28
42.082603 19.876024 5.2616272 25
41.471363 23.233047 5.2653456 11
41.22131 24.111496 5.2656274 23
41.112377 17.845488 5.2669559 12
41.552094 20.953121 5.2706766 25
41.454937 19.601334 5.2730002 26
41.553303 20.766176 5.2738452 25
41.425678 18.135815 5.2739825 13
41.568604 22.100975 5.2743201 11
41.369606 22.017572 5.2746148 11
42.021763 18.565218 5.2767439 11
41.814167 19.948444 5.2782021 24
41.434502 23.428312 5.2794781 11
41.816799 21.279451 5.2799873 22
41.615345 18.214842 5.2813849 12
41.741394 23.576473 5.2829528 22
41.685337 18.423592 5.2834344 26
41.579868 24.707294 5.2840142 11
41.802917 21.056324 5.284287 10
41.878098 21.291265 5.2857738 11
41.771179 22.397795 5.286612 24
41.99416 20.01284 5.2867856 22
41.536915 22.295443 5.2882886 27
41.136696 24.262894 5.2904043 12
41.41119 24.62982 5.291019 11
42.084335 18.981964 5.2919412 22
41.682873 24.950319 5.2928653 11
41.802402 18.662136 5.2991943 23
41.847095 23.833103 5.2997284 10
41.64172 23.739344 5.2999172 10
41.872189 20.160624 5.3048406 26
42.029896 24.134207 5.3050008 11
41.825676 18.672039 5.3061376 12
41.596359 22.519468 5.3068361 11
42.064919 17.495718 5.3071165 11
41.985924 20.213007 5.3080444 25
42.009159 17.473686 5.3094931 26
42.220039 19.02289 5.3104825 26
41.851337 20.337269 5.3107557 9
41.585709 21.355742 5.3110991 11
41.972034 21.737499 5.3157806 11
41.759518 24.003628 5.3162031 12
41.848942 21.467234 5.3163891 11
42.040432 22.956081 5.3172503 21
42.189751 20.476734 5.3209748 11
42.527161 18.039822 5.3221831 26
42.176765 21.820906 5.3238502 24
41.81411 19.030264 5.3248796 11
41.555702 22.479881 5.3252864 12
41.988613 20.588604 5.3261337 10
42.311741 19.228781 5.3282108 22
41.955502 22.89279 5.3294592 10
41.976746 17.639011 5.3319712 11
41.962822 17.63345 5.3325577 11
42.073002 19.326244 5.3351207 27
42.019886 24.339874 5.3352389 26
42.232956 20.892561 5.3372302 11
42.057167 23.161922 5.3380456 27
42.303726 17.966814 5.3392491 24
42.437477 20.799345 5.3399477 25
42.39835 18.186079 5.3406868 24
42.070568 21.97912 5.3412218 11
42.483006 19.488373 5.342515 25
41.954552 23.088791 5.3426695 12
42.207748 22.029497 5.3440475 26
42.640022 18.467363 5.3441195 20
42.300106 24.700159 5.3452682 26
42.464821 18.195927 5.3461957 25
41.122189 24.664778 5.3496666 15
42.059948 24.371876 5.350224 28
42.359417 21.152054 5.3533392 24
42.079025 19.513071 5.3561463 11
42.493931 20.998095 5.3595009 27
42.465595 19.666565 5.364747 24
42.129547 23.379534 5.3652864 11
42.007126 22.140358 5.365314 12
42.574577 18.614525 5.3684592 11
42.295296 19.803459 5.3684812 26
42.31382 22.277065 5.3695321 11
42.351078 18.330854 5.372282 11
41.949837 23.302361 5.372364 12
42.465092 20.048725 5.3752227 19
42.649796 22.643675 5.3776455 10
42.230934 24.865509 5.3784533 13
42.552399 21.226179 5.3786492 24
42.324696 23.683561 5.3790274 10
42.303535 23.691217 5.3795643 13
42.622021 19.931826 5.3798571 11
42.41637 21.370743 5.3808374 27
42.116596 22.39006 5.3823452 12
42.00507 24.543642 5.3826132 11
42.556686 18.607071 5.385303 26
42.745296 22.9186 5.3868852 24
42.633686 21.668839 5.3938212 26
42.680817 21.48015 5.3952594 11
42.766743 20.184925 5.3957744 24
42.713276 22.883215 5.396873 27
42.678493 21.884678 5.3972712 24
42.339714 18.69907 5.3994532 12
42.736305 18.866026 5.3997321 24
42.54797 20.292137 5.4014001 24
42.518436 23.98946 5.4015455 12
42.018909 24.764467 5.4036498 11
42.719185 19.061037 5.4056368 10
42.290901 23.884893 5.4103136 12
43.039509 17.872116 5.4112892 11
42.991753 17.870604 5.4129305 26
42.835152 20.387075 5.4151568 26
42.655216 21.660912 5.4181266 12
42.487698 22.983271 5.4190822 27
42.638466 20.504538 5.4198074 11
42.596321 24.23447 5.4204931 11
42.902943 18.000219 5.4222693 11
42.712276 19.040487 5.4223852 11
42.972488 23.416931 5.4223938 25
42.819584 23.136974 5.4231262 28
42.452366 24.174805 5.425849 10
43.014477 22.031422 5.4260454 10
43.172421 20.924129 5.4294291 11
42.664043 19.20492 5.4297671 26
43.022678 19.359001 5.4320936 11
42.936649 20.623652 5.4331059 27
42.689281 23.26837 5.4334497 11
42.9963 18.037485 5.4347997 12
42.485909 21.983675 5.435041 27
42.721092 20.732666 5.4383931 11
43.135887 19.57733 5.4417415 28
42.817524 24.560318 5.4425611 10
42.776184 23.533386 5.4434366 28
43.006832 19.735777 5.4436803 23
43.310848 18.356134 5.4445167 26
43.195358 23.736113 5.4445925 28
42.878975 22.160309 5.4450245 12
42.695583 24.512331 5.4469619 11
42.717247 22.294186 5.4479613 13
43.296104 18.552628 5.4505534 11
42.826244 20.981871 5.4561152 11
43.158863 22.496771 5.4564791 24
42.514866 19.325706 5.4572687 14
43.451469 24.075924 5.4573498 22
43.001911 24.878416 5.4576836 12
43.219257 18.503653 5.4618726 21
43.337372 19.880737 5.4640274 26
43.486992 20.136703 5.464036 10
42.779591 18.150393 5.4647079 12
42.988457 19.915886 5.4663591 11
43.510319 21.479408 5.469305 27
42.916218 21.014973 5.4693646 11
43.375011 18.770605 5.4696579 11
43.042023 21.276043 5.469943 24
42.861347 23.780058 5.4708657 12
43.402676 20.289957 5.4728503 10
42.819084 24.786165 5.4730754 28
43.072887 22.679882 5.4731607 11
43.392376 18.742331 5.4776745 12
43.178135 24.153202 5.4813051 12
43.152542 21.522459 5.4879794 11
43.656586 20.38525 5.4886532 23
43.103294 22.676376 5.4891796 13
43.678146 23.16855 5.4903588 25
43.207039 22.947109 5.4904819 11
43.406773 18.970167 5.4906349 11
43.473099 21.675838 5.492846 26
43.357044 20.442347 5.4970727 26
43.177952 24.133656 5.4987545 12
43.36721 18.935909 5.5005445 11
43.492481 24.509153 5.5011854 11
43.122078 21.702459 5.5030117 12
43.425346 19.147173 5.5041733 11
43.906914 20.866028 5.5080194 26
43.58807 20.757607 5.5107064 11
43.212044 24.376301 5.5111928 26
43.526333 20.518749 5.5158458 11
43.449646 21.841969 5.5164399 12
43.668331 19.447098 5.5175099 24
43.499149 23.278534 5.5195866 12
43.246773 23.167656 5.5199728 11
44.010994 18.255774 5.5220094 11
43.293594 23.393015 5.5237832 25
43.14053 21.906723 5.524641 13
43.862263 18.197035 5.5273423 25
43.629028 19.232878 5.5297709 11
43.555958 24.770618 5.5300574 25
43.69672 22.158998 5.5300784 10
43.894581 19.733599 5.5318589 24
43.719421 19.468826 5.5322604 12
43.530312 20.933537 5.5351391 24
43.577682 24.762749 5.5382571 25
44.100914 18.478405 5.5413728 26
43.775875 22.396425 5.5414567 25
44.089935 19.799305 5.5418816 11
43.850254 21.053139 5.5493183 25
43.672157 22.573051 5.550447 12
43.878796 21.466698 5.5513563 11
43.470924 23.465973 5.5518513 13
43.794594 18.356133 5.5521984 26
43.908428 19.93049 5.553968 10
43.400669 22.230778 5.5545497 10
43.618378 21.149742 5.5547767 27
44.361263 18.771101 5.5549364 22
43.486462 24.950182 5.5552936 12
43.703403 23.81007 5.5575509 22
43.901962 23.894732 5.5594869 11
44.180012 24.24737 5.5641985 28
44.04771 21.33061 5.5652747 26
44.029568 21.734709 5.5688825 27
43.937969 18.618172 5.5694637 11
43.93391 19.923326 5.5700374 28
44.064243 18.839344 5.5713124 11
44.225513 20.454584 5.5715919 10
43.953079 22.683937 5.5751729 11
43.857334 20.099642 5.5783954 12
44.308006 21.649248 5.5792112 24
43.663925 23.993858 5.5818582 11
44.205677 20.252335 5.5831747 10
44.166542 18.88105 5.5844297 11
43.526283 22.699852 5.5868211 13
44.169102 23.225136 5.5875802 21
43.896751 24.323528 5.5881734 11
44.209648 19.10593 5.5888057 11
44.354919 20.706625 5.5900826 25
44.085938 24.40481 5.5906706 12
44.088669 22.962585 5.5933824 12
44.539955 19.223951 5.5945659 24
44.244759 20.463104 5.6047401 12
44.617287 19.456522 5.6064391 11
44.089268 21.961205 5.6068192 12
44.354076 19.346903 5.6068563 27
44.079247 23.160345 5.6081805 13
44.132099 23.409962 5.6119986 10
44.396362 24.779978 5.6122866 12
44.267918 20.853432 5.6161337 12
44.498451 19.598707 5.6165638 24
44.552055 20.794767 5.6174746 24
44.358566 23.506081 5.6220279 12
43.956966 21.681526 5.6226368 13
43.949146 22.092464 5.6259923 11
44.645969 22.409658 5.6288509 25
44.623932 21.014105 5.6298575 29
44.510445 22.574579 5.6303344 25
44.581844 19.633795 5.6306829 12
44.395176 22.08847 5.6310916 12
43.82486 24.491991 5.6311617 12
44.445225 21.129854 5.6333094 24
44.223389 23.661308 5.6408763 11
44.690601 19.891079 5.6415634 24
44.151226 24.867119 5.6437578 14
44.539276 23.82407 5.6479583 23
44.761337 22.677557 5.6483936 25
44.734264 19.891218 5.6488466 12
44.76228 21.25548 5.6488566 26
44.436878 21.341877 5.6565247 10
44.01553 24.803331 5.656847 12
44.814209 20.314289 5.6587362 26
44.370838 23.943474 5.6594386 29
44.563469 20.011765 5.6605935 12
44.256405 22.651852 5.6619449 14
44.886162 21.729509 5.6656289 26
44.862427 20.140144 5.667995 26
44.618832 24.052628 5.6692152 12
44.725723 18.529011 5.6729054 24
44.880795 21.527351 5.6768589 27
44.870407 22.934525 5.6771793 24
44.759109 23.103352 5.6778908 26
44.739861 18.724394 5.6787906 13
44.794857 20.510599 5.6825757 11
44.879353 18.780046 5.6828003 12
44.893887 21.714048 5.6829057 11
44.954182 19.010294 5.6867166 27
44.503738 24.220175 5.6874685 11
44.865559 20.336563 5.691256 10
44.801044 21.889956 5.6918287 12
45.066021 20.826694 5.6975179 25
45.130146 22.02511 5.6991282 13
45.08905 19.064703 5.6994624 26
44.764248 23.105904 5.703918 14
45.189419 20.683554 5.7045646 25
44.584167 23.220556 5.7069893 13
44.900215 19.198437 5.7115254 12
44.882484 22.1292 5.712853 13
45.054756 19.45443 5.7131624 28
44.436195 24.392826 5.7132306 14
45.191467 23.505201 5.714745 28
45.028896 23.650333 5.7169371 12
45.45911 19.602612 5.7180929 11
45.271393 22.31337 5.7183313 12
45.148388 21.061394 5.7185769 24
45.106064 19.264078 5.7223754 12
45.272564 20.918135 5.7256827 11
45.022129 22.407358 5.7321429 12
45.17157 19.696611 5.7330961 12
45.508102 22.620264 5.7352276 28
45.464657 19.80011 5.7416306 29
45.448364 21.176485 5.7443924 11
44.97057 23.601122 5.7453737 12
45.049961 21.196909 5.7454309 29
45.275417 19.916332 5.7537875 12
45.681293 20.08703 5.7590308 13
45.209324 22.700846 5.7591076 12
45.194141 21.461632 5.7648582 28
45.42897 21.367878 5.7688532 13
45.74332 21.692513 5.7751822 28
45.426197 23.011213 5.7767553 11
45.764351 18.957439 5.7770863 25
45.239414 20.105953 5.77843 12
45.523159 21.813313 5.7791352 11
45.903973 19.188828 5.7799339 27
46.002441 20.420832 5.7824287 25
45.950222 20.607273 5.7904983 29
45.607903 20.479132 5.7913885 12
45.924717 19.178524 5.7967906 12
45.584122 20.648258 5.7988749 11
45.309494 23.160213 5.8042402 27
45.429451 21.981926 5.805759 14
45.821453 19.369467 5.8060732 13
45.782825 21.932747 5.8068056 14
46.2313 20.928988 5.8068056 30
45.881523 22.172495 5.81076 26
46.11573 19.469524 5.8153152 28
45.49247 22.214285 5.8192954 15
46.38559 19.776283 5.8233724 10
46.024334 19.629078 5.824635 12
46.008934 21.052359 5.8283186 23
46.082741 21.046377 5.8354535 13
45.909977 21.190748 5.8379664 11
46.278694 19.95915 5.8416104 24
46.653946 20.295162 5.8473134 13
46.36412 19.975445 5.8482261 12
46.271675 21.350805 5.8545341 11
46.095924 21.475395 5.8572407 12
46.460529 20.214651 5.8700843 13
46.325024 20.357761 5.8805656 13
46.331707 20.560732 5.8872895 13
46.599491 20.454052 5.8911743 11
46.995457 19.824244 5.9500928 12
46.639114 19.463251 5.9518795 17
33.10899 24.912437 4.2317972 27
33.355953 24.518559 4.2481666 27
33.139256 24.934412 4.2650862 12
33.548168 24.848875 4.2817316 29
33.352558 24.709091 4.2837873 28
33.485161 24.989738 4.2940898 29
33.473118 24.60161 4.2957101 30
33.837418 24.052639 4.2967329 24
33.247852 24.590462 4.3015385 9
33.495522 24.935112 4.317379 25
33.725502 24.158045 4.3348818 25
33.977402 24.701601 4.3509116 25
33.735703 24.348131 4.3558316 11
33.979393 24.951563 4.3558636 29
33.928459 24.853266 4.384192 11
34.381607 23.313747 4.3946571 22
34.351109 23.473806 4.4265933 24
34.569004 23.799131 4.4321938 22
34.755943 24.106953 4.4405189 21
34.755241 24.291237 4.4707403 22
34.964565 24.619057 4.4927697 24
35.014706 24.841093 4.5122323 11
35.218029 23.641129 4.5204072 10
35.323631 23.8934 4.5286684 11
35.558296 24.232435 4.5500865 10
35.677105 24.498117 4.550364 26
36.020386 24.1598 4.5818448 24
35.592129 24.647915 4.5871196 11
35.767063 24.954803 4.5987587 11
35.965904 24.311932 4.6172543 11
36.135735 24.620771 4.6295419 11
36.35862 24.949373 4.6543851 25
36.433445 24.417803 4.6899762 12
36.528893 24.66972 4.7237015 11
36.701569 24.974257 4.7374811 10
37.274532 24.952082 4.782197 25
34.715488 -22.81518 4.035748 27
34.963005 -23.172382 4.0359221 26
35.027561 -23.019182 4.0606437 26
34.749702 -22.643475 4.062808 27
35.196735 -23.324093 4.0757523 27
34.568974 -23.088482 4.0922942 13
35.159584 -23.488813 4.1163082 25
35.588451 -21.113457 4.1820636 28
35.818409 -21.437346 4.1861262 25
35.810879 -21.069935 4.1999035 28
35.990555 -21.562025 4.2086701 28
35.814442 -21.626215 4.2091093 27
35.923622 -21.337873 4.213201 28
36.053383 -21.785112 4.2268353 11
35.889778 -21.857437 4.2335672 30
36.135868 -22.199322 4.2372441 28
36.186695 -22.054352 4.2395763 11
36.380993 -22.561964 4.2559128 26
36.347435 -22.540346 4.2585363 26
36.547157 -22.859003 4.259057 29
36.530331 -22.82995 4.2610083 27
36.484756 -20.73642 4.2611556 26
36.179935 -22.245245 4.2632217 30
36.836945 -23.432945 4.2691669 29
36.687008 -23.141455 4.2721038 11
36.625858 -21.001736 4.2813511 25
36.51585 -23.029406 4.2852969 11
36.923744 -23.684954 4.2866836 27
36.842495 -23.41815 4.2925935 26
36.65823 -21.203768 4.3026557 10
37.013145 -23.949942 4.3038678 24
36.748898 -21.442333 4.3121214 25
37.046558 -23.747995 4.3169541 28
37.224365 -24.489189 4.3212938 26
36.932335 -21.739435 4.3222952 29
37.285202 -24.104122 4.3236203 21
37.031006 -24.159189 4.3269329 10
37.289074 -24.73391 4.3411756 25
37.089027 -22.022711 4.3424087 30
37.40633 -24.384398 4.3472629 25
37.088547 -21.085325 4.3504624 11
37.17614 -22.274113 4.3600392 29
37.314056 -21.403963 4.365787 24
37.384293 -22.594309 4.3693118 29
37.425758 -21.657139 4.3745322 28
37.450981 -24.634031 4.376152 11
37.522724 -22.87339 4.3762002 30
37.53651 -21.911678 4.3911772 29
37.630764 -24.958906 4.3961825 11
37.740753 -23.20557 4.4010401 25
37.72274 -22.223415 4.4023542 27
37.898083 -21.555723 4.4219108 25
38.062817 -21.671169 4.4252129 28
37.817917 -23.450302 4.4285445 11
37.809689 -22.467625 4.4289551 28
38.010662 -23.771702 4.4403028 11
37.941502 -21.769608 4.4439559 30
37.835232 -22.675358 4.4444885 11
38.10944 -21.869837 4.4477468 31
38.147636 -23.064247 4.4479742 27
38.198452 -22.140511 4.4504881 28
38.383766 -22.444347 4.4553223 29
38.113472 -24.056257 4.4580312 11
38.044395 -22.029587 4.4695063 30
38.345131 -24.389755 4.4763861 28
38.294556 -22.371853 4.4777193 29
38.423042 -22.661446 4.4782548 30
38.272881 -23.338814 4.4807034 11
38.500679 -23.680986 4.4829617 26
38.39333 -22.624821 4.4887247 30
38.51181 -22.910378 4.490047 30
38.486053 -24.704754 4.492105 11
38.773388 -23.268698 4.498333 25
38.533627 -22.905275 4.5049891 11
38.669769 -22.012461 4.5090432 28
38.441334 -23.841814 4.5128641 12
38.972694 -23.791088 4.5132756 28
38.812637 -23.27434 4.520277 11
38.825687 -23.499197 4.5209537 11
38.599533 -24.143965 4.5363317 12
38.936829 -23.55003 4.5382791 12
38.587166 -22.154959 4.5404148 30
39.182957 -24.135393 4.5417943 24
39.074978 -24.268513 4.5591125 11
38.795258 -22.472422 4.5605922 28
38.864544 -24.537876 4.560751 12
39.076775 -23.83786 4.5636015 11
39.177311 -24.938061 4.5672956 28
39.078079 -22.263338 4.5688853 11
39.117706 -24.499224 4.57479 13
